ply
format ascii 1.0
comment PCL generated
element vertex 1860
property float x
property float y
property float z
element camera 0
property float view_px
property float view_py
property float view_pz
property float x_axisx
property float x_axisy
property float x_axisz
property float y_axisx
property float y_axisy
property float y_axisz
property float z_axisx
property float z_axisy
property float z_axisz
property float focal
property float scalex
property float scaley
property float centerx
property float centery
property int viewportx
property int viewporty
property float k1
property float k2
end_header
-1.79 -8.29 -2.04
-1.79 -8.29 -1.9400001
-1.79 -8.29 -1.84
-1.79 -8.29 -1.74
-1.79 -8.29 -1.64
-1.79 -8.29 -1.54
-1.79 -8.29 -1.4400001
-1.79 -8.29 -1.34
-1.79 -8.29 -1.24
-1.79 -8.29 -1.14
-1.79 -8.29 -1.04
-1.79 -8.29 -0.94
-1.79 -8.29 -0.83999997
-1.79 -8.29 -0.74000001
-1.79 -8.29 -0.63999999
-1.79 -8.29 -0.54000002
-1.79 -8.29 -0.44
-1.79 -8.29 -0.34
-1.79 -8.29 -0.23999999
-1.79 -8.29 -0.14
-1.79 -8.29 -0.039999999
-1.79 -8.29 0.059999999
-1.79 -8.29 0.16
-1.79 -8.29 0.25999999
-1.6900001 -8.9899998 -2.9400001
-1.6900001 -8.9899998 -2.8399999
-1.6900001 -8.9899998 -2.74
-1.6900001 -8.9899998 -2.6400001
-1.6900001 -8.9899998 -2.54
-1.6900001 -8.9899998 -2.4400001
-1.6900001 -8.9899998 -2.3399999
-1.6900001 -8.9899998 -2.24
-1.6900001 -8.9899998 -2.1400001
-1.6900001 -8.9899998 -2.04
-1.6900001 -8.9899998 -1.9400001
-1.6900001 -8.9899998 -1.84
-1.6900001 -8.9899998 -1.74
-1.6900001 -8.9899998 -1.64
-1.6900001 -8.9899998 -1.54
-1.6900001 -8.9899998 -1.4400001
-1.6900001 -8.9899998 -1.34
-1.6900001 -8.9899998 -1.24
-1.6900001 -8.9899998 -1.14
-1.6900001 -8.9899998 -1.04
-1.6900001 -8.9899998 -0.94
-1.6900001 -8.9899998 -0.83999997
-1.6900001 -8.9899998 -0.74000001
-1.6900001 -8.9899998 -0.63999999
-1.6900001 -8.9899998 -0.54000002
-1.6900001 -8.9899998 -0.44
-1.6900001 -8.9899998 -0.34
-1.6900001 -8.9899998 -0.23999999
-1.6900001 -8.9899998 -0.14
-1.6900001 -8.9899998 -0.039999999
-1.6900001 -8.9899998 0.059999999
-1.6900001 -8.9899998 0.16
-1.6900001 -8.9899998 0.25999999
-1.6900001 -8.9899998 0.36000001
-1.6900001 -8.9899998 0.46000001
-1.6900001 -8.9899998 0.56
-1.6900001 -8.9899998 0.66000003
-1.6900001 -8.9899998 0.75999999
-1.6900001 -8.9899998 0.86000001
-1.6900001 -8.9899998 0.95999998
-1.6900001 -8.9899998 1.0599999
-1.6900001 -8.9899998 1.16
-1.6900001 -8.9899998 1.26
-1.6900001 -8.9899998 1.36
-1.6900001 -8.9899998 1.46
-1.6900001 -8.9899998 1.5599999
-1.6900001 -8.9899998 1.66
-1.6900001 -8.9899998 1.76
-1.6900001 -8.9899998 1.86
-1.6900001 -8.9899998 1.96
-1.6900001 -8.9899998 2.0599999
-1.6900001 -8.9899998 2.1600001
-1.6900001 -8.29 -2.9400001
-1.6900001 -8.29 -2.8399999
-1.6900001 -8.29 -2.74
-1.6900001 -8.29 -2.6400001
-1.6900001 -8.29 -2.54
-1.6900001 -8.29 -2.4400001
-1.6900001 -8.29 -2.3399999
-1.6900001 -8.29 -2.24
-1.6900001 -8.29 -2.1400001
-1.6900001 -8.29 -2.04
-1.6900001 -8.29 -1.9400001
-1.6900001 -8.29 -1.84
-1.6900001 -8.29 -1.74
-1.6900001 -8.29 -1.64
-1.6900001 -8.29 -1.54
-1.6900001 -8.29 -1.4400001
-1.6900001 -8.29 -1.34
-1.6900001 -8.29 -1.24
-1.6900001 -8.29 -1.14
-1.6900001 -8.29 -1.04
-1.6900001 -8.29 -0.94
-1.6900001 -8.29 -0.83999997
-1.6900001 -8.29 -0.74000001
-1.6900001 -8.29 -0.63999999
-1.6900001 -8.29 -0.54000002
-1.6900001 -8.29 -0.44
-1.6900001 -8.29 -0.34
-1.6900001 -8.29 -0.23999999
-1.6900001 -8.29 -0.14
-1.6900001 -8.29 -0.039999999
-1.6900001 -8.29 0.059999999
-1.6900001 -8.29 0.16
-1.6900001 -8.29 0.25999999
-1.6900001 -8.29 0.36000001
-1.6900001 -8.29 0.46000001
-1.6900001 -8.29 0.56
-1.6900001 -8.29 0.66000003
-1.6900001 -8.29 0.75999999
-1.6900001 -8.29 0.86000001
-1.6900001 -8.29 0.95999998
-1.6900001 -8.29 1.0599999
-1.6900001 -8.29 1.16
-1.59 -8.29 -2.9400001
-1.59 -8.29 -2.8399999
-1.59 -8.29 -2.74
-1.59 -8.29 -2.6400001
-1.59 -8.29 -2.54
-1.59 -8.29 -2.4400001
-1.59 -8.29 -2.3399999
-1.59 -8.29 -2.24
-1.59 -8.29 -2.1400001
-1.59 -8.29 -2.04
-1.59 -8.29 -1.9400001
-1.59 -8.29 -1.84
-1.59 -8.29 -1.74
-1.59 -8.29 -1.64
-1.59 -8.29 -1.54
-1.59 -8.29 -1.4400001
-1.59 -8.29 -1.34
-1.59 -8.29 -1.24
-1.59 -8.29 -1.14
-1.59 -8.29 -1.04
-1.59 -8.29 -0.94
-1.59 -8.29 -0.83999997
-1.59 -8.29 -0.74000001
-1.59 -8.29 -0.63999999
-1.59 -8.29 -0.54000002
-1.59 -8.29 -0.44
-1.59 -8.29 -0.34
-1.59 -8.29 -0.23999999
-1.59 -8.29 -0.14
-1.59 -8.29 -0.039999999
-1.59 -8.29 0.059999999
-1.59 -8.29 0.16
-1.59 -8.29 0.25999999
-1.59 -8.29 0.36000001
-1.59 -8.29 0.46000001
-1.59 -8.29 0.56
-1.59 -8.29 0.66000003
-1.59 -8.29 0.75999999
-1.59 -8.29 0.86000001
-1.59 -8.29 0.95999998
-1.59 -8.29 1.0599999
-1.59 -8.29 1.16
-1.59 -8.29 1.26
-1.59 -8.29 1.36
-1.59 -8.29 1.46
-1.59 -8.29 1.5599999
-1.59 -8.29 1.66
-1.49 -8.29 -2.9400001
-1.49 -8.29 -2.8399999
-1.49 -8.29 -2.74
-1.49 -8.29 -2.6400001
-1.49 -8.29 -2.54
-1.49 -8.29 -2.4400001
-1.49 -8.29 -2.3399999
-1.49 -8.29 -2.24
-1.49 -8.29 -2.1400001
-1.49 -8.29 -2.04
-1.49 -8.29 -1.9400001
-1.49 -8.29 -1.84
-1.49 -8.29 -1.74
-1.49 -8.29 -1.64
-1.49 -8.29 -1.54
-1.49 -8.29 -1.4400001
-1.49 -8.29 -1.34
-1.49 -8.29 -1.24
-1.49 -8.29 -1.14
-1.49 -8.29 -1.04
-1.49 -8.29 -0.94
-1.49 -8.29 -0.83999997
-1.49 -8.29 -0.74000001
-1.49 -8.29 -0.63999999
-1.49 -8.29 -0.54000002
-1.49 -8.29 -0.44
-1.49 -8.29 -0.34
-1.49 -8.29 -0.23999999
-1.49 -8.29 -0.14
-1.49 -8.29 -0.039999999
-1.49 -8.29 0.059999999
-1.49 -8.29 0.16
-1.49 -8.29 0.25999999
-1.49 -8.29 0.36000001
-1.49 -8.29 0.46000001
-1.49 -8.29 0.56
-1.49 -8.29 0.66000003
-1.49 -8.29 0.75999999
-1.49 -8.29 0.86000001
-1.49 -8.29 0.95999998
-1.49 -8.29 1.0599999
-1.49 -8.29 1.16
-1.49 -8.29 1.26
-1.49 -8.29 1.36
-1.49 -8.29 1.46
-1.49 -8.29 1.5599999
-1.49 -8.29 1.66
-1.49 -8.29 1.76
-1.49 -8.29 1.86
-1.49 -8.29 1.96
-1.49 -8.29 2.0599999
-1.49 -8.29 2.1600001
-1.49 -8.29 2.26
-1.49 -8.29 2.3599999
-1.49 -8.29 2.46
-1.49 -8.29 2.5599999
-1.49 -8.29 2.6600001
-1.49 -8.29 2.76
-1.49 -8.29 2.8599999
-1.39 -8.9899998 -2.9400001
-1.39 -8.9899998 -2.8399999
-1.39 -8.9899998 -2.74
-1.39 -8.9899998 -2.6400001
-1.39 -8.9899998 -2.54
-1.39 -8.9899998 -2.4400001
-1.39 -8.9899998 -2.3399999
-1.39 -8.9899998 -2.24
-1.39 -8.9899998 -2.1400001
-1.39 -8.9899998 -2.04
-1.39 -8.9899998 -1.9400001
-1.39 -8.9899998 -1.84
-1.39 -8.9899998 -1.74
-1.39 -8.9899998 -1.64
-1.39 -8.9899998 -1.54
-1.39 -8.9899998 -1.4400001
-1.39 -8.9899998 -1.34
-1.39 -8.9899998 -1.24
-1.39 -8.9899998 -1.14
-1.39 -8.9899998 -1.04
-1.39 -8.9899998 -0.94
-1.39 -8.9899998 -0.83999997
-1.39 -8.9899998 -0.74000001
-1.39 -8.9899998 -0.63999999
-1.39 -8.9899998 -0.54000002
-1.39 -8.9899998 -0.44
-1.39 -8.9899998 -0.34
-1.39 -8.9899998 -0.23999999
-1.39 -8.9899998 -0.14
-1.39 -8.9899998 -0.039999999
-1.39 -8.9899998 0.059999999
-1.39 -8.9899998 0.16
-1.39 -8.9899998 0.25999999
-1.39 -8.9899998 0.36000001
-1.39 -8.9899998 0.46000001
-1.39 -8.9899998 0.56
-1.39 -8.9899998 0.66000003
-1.39 -8.9899998 0.75999999
-1.39 -8.9899998 0.86000001
-1.39 -8.9899998 0.95999998
-1.39 -8.9899998 1.0599999
-1.39 -8.9899998 1.16
-1.39 -8.29 -2.9400001
-1.39 -8.29 -2.8399999
-1.39 -8.29 -2.74
-1.39 -8.29 -2.6400001
-1.39 -8.29 -2.54
-1.39 -8.29 -2.4400001
-1.39 -8.29 -2.3399999
-1.39 -8.29 -2.24
-1.39 -8.29 -2.1400001
-1.39 -8.29 -2.04
-1.39 -8.29 -1.9400001
-1.39 -8.29 -1.84
-1.39 -8.29 -1.74
-1.39 -8.29 -1.64
-1.39 -8.29 -1.54
-1.39 -8.29 -1.4400001
-1.39 -8.29 -1.34
-1.39 -8.29 -1.24
-1.39 -8.29 -1.14
-1.39 -8.29 -1.04
-1.39 -8.29 -0.94
-1.39 -8.29 -0.83999997
-1.39 -8.29 -0.74000001
-1.39 -8.29 -0.63999999
-1.39 -8.29 -0.54000002
-1.39 -8.29 -0.44
-1.39 -8.29 -0.34
-1.39 -8.29 -0.23999999
-1.39 -8.29 -0.14
-1.39 -8.29 -0.039999999
-1.39 -8.29 0.059999999
-1.39 -8.29 0.16
-1.39 -8.29 0.25999999
-1.39 -8.29 0.36000001
-1.39 -8.29 0.46000001
-1.39 -8.29 0.56
-1.39 -8.29 0.66000003
-1.39 -8.29 0.75999999
-1.39 -8.29 0.86000001
-1.39 -8.29 0.95999998
-1.39 -8.29 1.0599999
-1.39 -8.29 1.16
-1.39 -8.29 1.26
-1.39 -8.29 1.36
-1.29 -8.9899998 -2.9400001
-1.29 -8.9899998 -2.8399999
-1.29 -8.9899998 -2.74
-1.29 -8.9899998 -2.6400001
-1.29 -8.9899998 -2.54
-1.29 -8.9899998 -2.4400001
-1.29 -8.9899998 -2.3399999
-1.29 -8.9899998 -2.24
-1.29 -8.9899998 -2.1400001
-1.29 -8.9899998 -2.04
-1.29 -8.9899998 -1.9400001
-1.29 -8.9899998 -1.84
-1.29 -8.9899998 -1.74
-1.29 -8.9899998 -1.64
-1.29 -8.9899998 -1.54
-1.29 -8.9899998 -1.4400001
-1.29 -8.9899998 -1.34
-1.29 -8.9899998 -1.24
-1.29 -8.9899998 -1.14
-1.29 -8.9899998 -1.04
-1.29 -8.9899998 -0.94
-1.29 -8.9899998 -0.83999997
-1.29 -8.9899998 -0.74000001
-1.29 -8.9899998 -0.63999999
-1.29 -8.9899998 -0.54000002
-1.29 -8.9899998 -0.44
-1.29 -8.9899998 -0.34
-1.29 -8.9899998 -0.23999999
-1.29 -8.9899998 -0.14
-1.29 -8.9899998 -0.039999999
-1.29 -8.9899998 0.059999999
-1.29 -8.9899998 0.16
-1.29 -8.9899998 0.25999999
-1.29 -8.9899998 0.36000001
-1.29 -8.9899998 0.46000001
-1.29 -8.9899998 0.56
-1.29 -8.9899998 0.66000003
-1.29 -8.9899998 0.75999999
-1.29 -8.9899998 0.86000001
-1.29 -8.9899998 0.95999998
-1.29 -8.9899998 1.0599999
-1.29 -8.9899998 1.16
-1.29 -8.9899998 1.26
-1.29 -8.9899998 1.36
-1.29 -8.8900003 -2.9400001
-1.29 -8.8900003 -2.8399999
-1.29 -8.8900003 -2.74
-1.29 -8.8900003 -2.6400001
-1.29 -8.8900003 -2.54
-1.29 -8.8900003 -2.4400001
-1.29 -8.8900003 -2.3399999
-1.29 -8.8900003 -2.24
-1.29 -8.8900003 -2.1400001
-1.29 -8.8900003 -2.04
-1.29 -8.8900003 -1.9400001
-1.29 -8.8900003 -1.84
-1.29 -8.8900003 -1.74
-1.29 -8.8900003 -1.64
-1.29 -8.8900003 -1.54
-1.29 -8.8900003 -1.4400001
-1.29 -8.8900003 -1.34
-1.29 -8.8900003 -1.24
-1.29 -8.8900003 -1.14
-1.29 -8.8900003 -1.04
-1.29 -8.8900003 -0.94
-1.29 -8.8900003 -0.83999997
-1.29 -8.8900003 -0.74000001
-1.29 -8.8900003 -0.63999999
-1.29 -8.8900003 -0.54000002
-1.29 -8.8900003 -0.44
-1.29 -8.8900003 -0.34
-1.29 -8.8900003 -0.23999999
-1.29 -8.8900003 -0.14
-1.29 -8.8900003 -0.039999999
-1.29 -8.8900003 0.059999999
-1.29 -8.8900003 0.16
-1.29 -8.8900003 0.25999999
-1.29 -8.8900003 0.36000001
-1.29 -8.8900003 0.46000001
-1.29 -8.8900003 0.56
-1.29 -8.8900003 0.66000003
-1.29 -8.8900003 0.75999999
-1.29 -8.8900003 0.86000001
-1.29 -8.8900003 0.95999998
-1.29 -8.8900003 1.0599999
-1.29 -8.8900003 1.16
-1.29 -8.8900003 1.26
-1.29 -8.8900003 1.36
-1.29 -8.8900003 1.46
-1.29 -8.8900003 1.5599999
-1.29 -8.8900003 1.66
-1.29 -8.8900003 1.76
-1.29 -8.8900003 1.86
-1.29 -8.8900003 1.96
-1.29 -8.8900003 2.0599999
-1.29 -8.8900003 2.1600001
-1.29 -8.3900003 -2.9400001
-1.29 -8.3900003 -2.8399999
-1.29 -8.3900003 -2.74
-1.29 -8.3900003 -2.6400001
-1.29 -8.3900003 -2.54
-1.29 -8.3900003 -2.4400001
-1.29 -8.3900003 -2.3399999
-1.29 -8.3900003 -2.24
-1.29 -8.3900003 -2.1400001
-1.29 -8.3900003 -2.04
-1.29 -8.3900003 -1.9400001
-1.29 -8.3900003 -1.84
-1.29 -8.3900003 -1.74
-1.29 -8.3900003 -1.64
-1.29 -8.3900003 -1.54
-1.29 -8.3900003 -1.4400001
-1.29 -8.3900003 -1.34
-1.29 -8.3900003 -1.24
-1.29 -8.3900003 -1.14
-1.29 -8.3900003 -1.04
-1.29 -8.3900003 -0.94
-1.29 -8.3900003 -0.83999997
-1.29 -8.3900003 -0.74000001
-1.29 -8.3900003 -0.63999999
-1.29 -8.3900003 -0.54000002
-1.29 -8.3900003 -0.44
-1.29 -8.3900003 -0.34
-1.29 -8.3900003 -0.23999999
-1.29 -8.3900003 -0.14
-1.29 -8.3900003 -0.039999999
-1.29 -8.3900003 0.059999999
-1.29 -8.3900003 0.16
-1.29 -8.3900003 0.25999999
-1.29 -8.3900003 0.36000001
-1.29 -8.3900003 0.46000001
-1.29 -8.3900003 0.56
-1.29 -8.3900003 0.66000003
-1.29 -8.3900003 0.75999999
-1.29 -8.3900003 0.86000001
-1.29 -8.3900003 0.95999998
-1.29 -8.3900003 1.0599999
-1.29 -8.3900003 1.16
-1.29 -8.3900003 1.26
-1.29 -8.3900003 1.36
-1.29 -8.3900003 1.46
-1.29 -8.3900003 1.5599999
-1.29 -8.3900003 1.66
-1.29 -8.3900003 1.76
-1.29 -8.3900003 1.86
-1.29 -8.3900003 1.96
-1.29 -8.3900003 2.0599999
-1.29 -8.3900003 2.1600001
-1.29 -8.3900003 2.26
-1.29 -8.29 -2.9400001
-1.29 -8.29 -2.8399999
-1.29 -8.29 -2.74
-1.29 -8.29 -2.6400001
-1.29 -8.29 -2.54
-1.29 -8.29 -2.4400001
-1.29 -8.29 -2.3399999
-1.29 -8.29 -2.24
-1.29 -8.29 -2.1400001
-1.29 -8.29 -2.04
-1.29 -8.29 -1.9400001
-1.29 -8.29 -1.84
-1.29 -8.29 -1.74
-1.29 -8.29 -1.64
-1.29 -8.29 -1.54
-1.29 -8.29 -1.4400001
-1.29 -8.29 -1.34
-1.29 -8.29 -1.24
-1.29 -8.29 -1.14
-1.29 -8.29 -1.04
-1.29 -8.29 -0.94
-1.29 -8.29 -0.83999997
-1.29 -8.29 -0.74000001
-1.29 -8.29 -0.63999999
-1.29 -8.29 -0.54000002
-1.29 -8.29 -0.44
-1.29 -8.29 -0.34
-1.29 -8.29 -0.23999999
-1.29 -8.29 -0.14
-1.29 -8.29 -0.039999999
-1.29 -8.29 0.059999999
-1.29 -8.29 0.16
-1.29 -8.29 0.25999999
-1.29 -8.29 0.36000001
-1.29 -8.29 0.46000001
-1.29 -8.29 0.56
-1.29 -8.29 0.66000003
-1.1900001 -8.8900003 -2.9400001
-1.1900001 -8.8900003 -2.8399999
-1.1900001 -8.8900003 -2.74
-1.1900001 -8.8900003 -2.6400001
-1.1900001 -8.8900003 -2.54
-1.1900001 -8.8900003 -2.4400001
-1.1900001 -8.8900003 -2.3399999
-1.1900001 -8.8900003 -2.24
-1.1900001 -8.8900003 -2.1400001
-1.1900001 -8.8900003 -2.04
-1.1900001 -8.8900003 -1.9400001
-1.1900001 -8.8900003 -1.84
-1.1900001 -8.8900003 -1.74
-1.1900001 -8.8900003 -1.64
-1.1900001 -8.8900003 -1.54
-1.1900001 -8.8900003 -1.4400001
-1.1900001 -8.8900003 -1.34
-1.1900001 -8.8900003 -1.24
-1.1900001 -8.8900003 -1.14
-1.1900001 -8.8900003 -1.04
-1.1900001 -8.8900003 -0.94
-1.1900001 -8.8900003 -0.83999997
-1.1900001 -8.8900003 -0.74000001
-1.1900001 -8.8900003 -0.63999999
-1.1900001 -8.8900003 -0.54000002
-1.1900001 -8.8900003 -0.44
-1.1900001 -8.8900003 -0.34
-1.1900001 -8.8900003 -0.23999999
-1.1900001 -8.8900003 -0.14
-1.1900001 -8.8900003 -0.039999999
-1.1900001 -8.8900003 0.059999999
-1.1900001 -8.8900003 0.16
-1.1900001 -8.8900003 0.25999999
-1.1900001 -8.8900003 0.36000001
-1.1900001 -8.8900003 0.46000001
-1.1900001 -8.8900003 0.56
-1.1900001 -8.8900003 0.66000003
-1.1900001 -8.8900003 0.75999999
-1.1900001 -8.8900003 0.86000001
-1.1900001 -8.8900003 0.95999998
-1.1900001 -8.8900003 1.0599999
-1.1900001 -8.8900003 1.16
-1.1900001 -8.8900003 1.26
-1.1900001 -8.8900003 1.36
-1.1900001 -8.8900003 1.46
-1.1900001 -8.8900003 1.5599999
-1.1900001 -8.8900003 1.66
-1.1900001 -8.8900003 1.76
-1.1900001 -8.8900003 1.86
-1.1900001 -8.8900003 1.96
-1.1900001 -8.8900003 2.0599999
-1.1900001 -8.8900003 2.1600001
-1.1900001 -8.8900003 2.26
-1.1900001 -8.8900003 2.3599999
-1.1900001 -8.8900003 2.46
-1.1900001 -8.8900003 2.5599999
-1.1900001 -8.8900003 2.6600001
-1.1900001 -8.8900003 2.76
-1.1900001 -8.79 -2.9400001
-1.1900001 -8.79 -2.8399999
-1.1900001 -8.79 -2.74
-1.1900001 -8.79 -2.6400001
-1.1900001 -8.79 -2.54
-1.1900001 -8.79 -2.4400001
-1.1900001 -8.79 -2.3399999
-1.1900001 -8.79 -2.24
-1.1900001 -8.79 -2.1400001
-1.1900001 -8.79 -2.04
-1.1900001 -8.79 -1.9400001
-1.1900001 -8.79 -1.84
-1.1900001 -8.79 -1.74
-1.1900001 -8.79 -1.64
-1.1900001 -8.79 -1.54
-1.1900001 -8.79 -1.4400001
-1.1900001 -8.79 -1.34
-1.1900001 -8.79 -1.24
-1.1900001 -8.79 -1.14
-1.1900001 -8.79 -1.04
-1.1900001 -8.79 -0.94
-1.1900001 -8.79 -0.83999997
-1.1900001 -8.79 -0.74000001
-1.1900001 -8.79 -0.63999999
-1.1900001 -8.79 -0.54000002
-1.1900001 -8.79 -0.44
-1.1900001 -8.79 -0.34
-1.1900001 -8.79 -0.23999999
-1.1900001 -8.79 -0.14
-1.1900001 -8.79 -0.039999999
-1.1900001 -8.79 0.059999999
-1.1900001 -8.79 0.16
-1.1900001 -8.79 0.25999999
-1.1900001 -8.79 0.36000001
-1.1900001 -8.79 0.46000001
-1.1900001 -8.79 0.56
-1.1900001 -8.79 0.66000003
-1.1900001 -8.79 0.75999999
-1.1900001 -8.79 0.86000001
-1.1900001 -8.79 0.95999998
-1.1900001 -8.6899996 -2.9400001
-1.1900001 -8.6899996 -2.8399999
-1.1900001 -8.6899996 -2.74
-1.1900001 -8.6899996 -2.6400001
-1.1900001 -8.6899996 -2.54
-1.1900001 -8.6899996 -2.4400001
-1.1900001 -8.6899996 -2.3399999
-1.1900001 -8.6899996 -2.24
-1.1900001 -8.6899996 -2.1400001
-1.1900001 -8.6899996 -2.04
-1.1900001 -8.6899996 -1.9400001
-1.1900001 -8.6899996 -1.84
-1.1900001 -8.6899996 -1.74
-1.1900001 -8.6899996 -1.64
-1.1900001 -8.6899996 -1.54
-1.1900001 -8.6899996 -1.4400001
-1.1900001 -8.6899996 -1.34
-1.1900001 -8.6899996 -1.24
-1.1900001 -8.6899996 -1.14
-1.1900001 -8.6899996 -1.04
-1.1900001 -8.6899996 -0.94
-1.1900001 -8.6899996 -0.83999997
-1.1900001 -8.6899996 -0.74000001
-1.1900001 -8.6899996 -0.63999999
-1.1900001 -8.6899996 -0.54000002
-1.1900001 -8.6899996 -0.44
-1.1900001 -8.6899996 -0.34
-1.1900001 -8.6899996 -0.23999999
-1.1900001 -8.6899996 -0.14
-1.1900001 -8.6899996 -0.039999999
-1.1900001 -8.6899996 0.059999999
-1.1900001 -8.6899996 0.16
-1.1900001 -8.6899996 0.25999999
-1.1900001 -8.6899996 0.36000001
-1.1900001 -8.6899996 0.46000001
-1.1900001 -8.6899996 0.56
-1.1900001 -8.6899996 0.66000003
-1.1900001 -8.6899996 0.75999999
-1.1900001 -8.6899996 0.86000001
-1.1900001 -8.6899996 0.95999998
-1.1900001 -8.6899996 1.0599999
-1.1900001 -8.6899996 1.16
-1.1900001 -8.6899996 1.26
-1.1900001 -8.6899996 1.36
-1.1900001 -8.6899996 1.46
-1.1900001 -8.6899996 1.5599999
-1.1900001 -8.6899996 1.66
-1.1900001 -8.6899996 1.76
-1.1900001 -8.6899996 1.86
-1.1900001 -8.6899996 1.96
-1.1900001 -8.5900002 -2.9400001
-1.1900001 -8.5900002 -2.8399999
-1.1900001 -8.5900002 -2.74
-1.1900001 -8.5900002 -2.6400001
-1.1900001 -8.5900002 -2.54
-1.1900001 -8.5900002 -2.4400001
-1.1900001 -8.5900002 -2.3399999
-1.1900001 -8.5900002 -2.24
-1.1900001 -8.5900002 -2.1400001
-1.1900001 -8.5900002 -2.04
-1.1900001 -8.5900002 -1.9400001
-1.1900001 -8.5900002 -1.84
-1.1900001 -8.5900002 -1.74
-1.1900001 -8.5900002 -1.64
-1.1900001 -8.5900002 -1.54
-1.1900001 -8.5900002 -1.4400001
-1.1900001 -8.5900002 -1.34
-1.1900001 -8.5900002 -1.24
-1.1900001 -8.5900002 -1.14
-1.1900001 -8.5900002 -1.04
-1.1900001 -8.5900002 -0.94
-1.1900001 -8.5900002 -0.83999997
-1.1900001 -8.5900002 -0.74000001
-1.1900001 -8.5900002 -0.63999999
-1.1900001 -8.5900002 -0.54000002
-1.1900001 -8.5900002 -0.44
-1.1900001 -8.5900002 -0.34
-1.1900001 -8.5900002 -0.23999999
-1.1900001 -8.5900002 -0.14
-1.1900001 -8.5900002 -0.039999999
-1.1900001 -8.5900002 0.059999999
-1.1900001 -8.5900002 0.16
-1.1900001 -8.5900002 0.25999999
-1.1900001 -8.5900002 0.36000001
-1.1900001 -8.5900002 0.46000001
-1.1900001 -8.5900002 0.56
-1.1900001 -8.5900002 0.66000003
-1.1900001 -8.5900002 0.75999999
-1.1900001 -8.5900002 0.86000001
-1.1900001 -8.5900002 0.95999998
-1.1900001 -8.5900002 1.0599999
-1.1900001 -8.5900002 1.16
-1.1900001 -8.5900002 1.26
-1.1900001 -8.5900002 1.36
-1.1900001 -8.5900002 1.46
-1.1900001 -8.5900002 1.5599999
-1.1900001 -8.5900002 1.66
-1.1900001 -8.5900002 1.76
-1.1900001 -8.5900002 1.86
-1.1900001 -8.5900002 1.96
-1.1900001 -8.5900002 2.0599999
-1.1900001 -8.5900002 2.1600001
-1.1900001 -8.5900002 2.26
-1.1900001 -8.5900002 2.3599999
-1.1900001 -8.5900002 2.46
-1.1900001 -8.5900002 2.5599999
-1.1900001 -8.5900002 2.6600001
-1.1900001 -8.5900002 2.76
-1.1900001 -8.5900002 2.8599999
-1.1900001 -8.5900002 2.96
-1.1900001 -8.4899998 -2.9400001
-1.1900001 -8.4899998 -2.8399999
-1.1900001 -8.4899998 -2.74
-1.1900001 -8.4899998 -2.6400001
-1.1900001 -8.4899998 -2.54
-1.1900001 -8.4899998 -2.4400001
-1.1900001 -8.4899998 -2.3399999
-1.1900001 -8.4899998 -2.24
-1.1900001 -8.4899998 -2.1400001
-1.1900001 -8.4899998 -2.04
-1.1900001 -8.4899998 -1.9400001
-1.1900001 -8.4899998 -1.84
-1.1900001 -8.4899998 -1.74
-1.1900001 -8.4899998 -1.64
-1.1900001 -8.4899998 -1.54
-1.1900001 -8.4899998 -1.4400001
-1.1900001 -8.4899998 -1.34
-1.1900001 -8.4899998 -1.24
-1.1900001 -8.4899998 -1.14
-1.1900001 -8.4899998 -1.04
-1.1900001 -8.4899998 -0.94
-1.1900001 -8.4899998 -0.83999997
-1.1900001 -8.4899998 -0.74000001
-1.1900001 -8.4899998 -0.63999999
-1.1900001 -8.4899998 -0.54000002
-1.1900001 -8.4899998 -0.44
-1.1900001 -8.4899998 -0.34
-1.1900001 -8.4899998 -0.23999999
-1.1900001 -8.4899998 -0.14
-1.1900001 -8.4899998 -0.039999999
-1.1900001 -8.4899998 0.059999999
-1.1900001 -8.4899998 0.16
-1.1900001 -8.4899998 0.25999999
-1.1900001 -8.4899998 0.36000001
-1.1900001 -8.4899998 0.46000001
-1.1900001 -8.4899998 0.56
-1.1900001 -8.4899998 0.66000003
-1.1900001 -8.4899998 0.75999999
-1.1900001 -8.4899998 0.86000001
-1.1900001 -8.4899998 0.95999998
-1.1900001 -8.4899998 1.0599999
-1.1900001 -8.4899998 1.16
-1.1900001 -8.4899998 1.26
-1.1900001 -8.4899998 1.36
-1.1900001 -8.4899998 1.46
-1.1900001 -8.4899998 1.5599999
-1.1900001 -8.4899998 1.66
-1.1900001 -8.4899998 1.76
-1.1900001 -8.3900003 -2.9400001
-1.1900001 -8.3900003 -2.8399999
-1.1900001 -8.3900003 -2.74
-1.1900001 -8.3900003 -2.6400001
-1.1900001 -8.3900003 -2.54
-1.1900001 -8.3900003 -2.4400001
-1.1900001 -8.3900003 -2.3399999
-1.1900001 -8.3900003 -2.24
-1.1900001 -8.3900003 -2.1400001
-1.1900001 -8.3900003 -2.04
-1.1900001 -8.3900003 -1.9400001
-1.1900001 -8.3900003 -1.84
-1.1900001 -8.3900003 -1.74
-1.1900001 -8.3900003 -1.64
-1.1900001 -8.3900003 -1.54
-1.1900001 -8.3900003 -1.4400001
-1.1900001 -8.3900003 -1.34
-1.1900001 -8.3900003 -1.24
-1.1900001 -8.3900003 -1.14
-1.1900001 -8.3900003 -1.04
-1.1900001 -8.3900003 -0.94
-1.1900001 -8.3900003 -0.83999997
-1.1900001 -8.3900003 -0.74000001
-1.1900001 -8.3900003 -0.63999999
-1.1900001 -8.3900003 -0.54000002
-1.1900001 -8.3900003 -0.44
-1.1900001 -8.3900003 -0.34
-1.1900001 -8.3900003 -0.23999999
-1.1900001 -8.3900003 -0.14
-1.1900001 -8.3900003 -0.039999999
-1.1900001 -8.3900003 0.059999999
-1.1900001 -8.3900003 0.16
-1.1900001 -8.3900003 0.25999999
-1.1900001 -8.3900003 0.36000001
-1.1900001 -8.3900003 0.46000001
-1.1900001 -8.3900003 0.56
-1.1900001 -8.3900003 0.66000003
-1.1900001 -8.3900003 0.75999999
-1.1900001 -8.3900003 0.86000001
-1.1900001 -8.3900003 0.95999998
-1.1900001 -8.3900003 1.0599999
-1.1900001 -8.3900003 1.16
-1.1900001 -8.3900003 1.26
-1.1900001 -8.3900003 1.36
-1.1900001 -8.3900003 1.46
-1.1900001 -8.3900003 1.5599999
-1.1900001 -8.3900003 1.66
-1.1900001 -8.3900003 1.76
-1.1900001 -8.3900003 1.86
-1.1900001 -8.3900003 1.96
-10.59 4.9099998 -2.9400001
-10.59 4.9099998 -2.8399999
-10.59 4.9099998 -2.74
-10.59 4.9099998 -2.6400001
-10.59 4.9099998 -2.54
-10.59 4.9099998 -2.4400001
-10.59 4.9099998 -2.3399999
-10.59 4.9099998 -2.24
-10.59 4.9099998 -2.1400001
-10.59 4.9099998 -2.04
-10.59 4.9099998 -1.9400001
-10.59 4.9099998 -1.84
-10.59 4.9099998 -1.74
-10.59 4.9099998 -1.64
-10.59 4.9099998 -1.54
-10.59 4.9099998 -1.4400001
-10.59 4.9099998 -1.34
-10.59 4.9099998 -1.24
-10.59 4.9099998 -1.14
-10.59 4.9099998 -1.04
-10.59 4.9099998 -0.94
-10.59 4.9099998 -0.83999997
-10.59 4.9099998 -0.74000001
-10.59 4.9099998 -0.63999999
-10.59 4.9099998 -0.54000002
-10.59 4.9099998 -0.44
-10.59 4.9099998 -0.34
-10.59 4.9099998 -0.23999999
-10.59 4.9099998 -0.14
-10.59 4.9099998 -0.039999999
-10.59 4.9099998 0.059999999
-10.59 4.9099998 0.16
-10.59 4.9099998 0.25999999
-10.59 4.9099998 0.36000001
-10.59 4.9099998 0.46000001
-10.59 4.9099998 0.56
-10.59 4.9099998 0.66000003
-10.59 4.9099998 0.75999999
-10.59 4.9099998 0.86000001
-10.59 4.9099998 0.95999998
-10.59 4.9099998 1.0599999
-10.59 4.9099998 1.16
-10.59 4.9099998 1.26
-10.59 4.9099998 1.36
-10.59 4.9099998 1.46
-10.59 4.9099998 1.5599999
-10.59 4.9099998 1.66
-10.59 5.0100002 -2.9400001
-10.59 5.0100002 -2.8399999
-10.59 5.0100002 -2.74
-10.59 5.0100002 -2.6400001
-10.59 5.0100002 -2.54
-10.59 5.0100002 -2.4400001
-10.59 5.0100002 -2.3399999
-10.59 5.0100002 -2.24
-10.59 5.0100002 -2.1400001
-10.59 5.0100002 -2.04
-10.59 5.0100002 -1.9400001
-10.59 5.0100002 -1.84
-10.59 5.0100002 -1.74
-10.59 5.0100002 -1.64
-10.59 5.0100002 -1.54
-10.59 5.0100002 -1.4400001
-10.59 5.0100002 -1.34
-10.59 5.0100002 -1.24
-10.59 5.0100002 -1.14
-10.59 5.0100002 -1.04
-10.59 5.0100002 -0.94
-10.59 5.0100002 -0.83999997
-10.59 5.0100002 -0.74000001
-10.59 5.0100002 -0.63999999
-10.59 5.0100002 -0.54000002
-10.59 5.0100002 -0.44
-10.59 5.0100002 -0.34
-10.59 5.0100002 -0.23999999
-10.59 5.0100002 -0.14
-10.59 5.0100002 -0.039999999
-10.59 5.0100002 0.059999999
-10.59 5.0100002 0.16
-10.59 5.0100002 0.25999999
-10.59 5.0100002 0.36000001
-10.59 5.0100002 0.46000001
-10.59 5.0100002 0.56
-10.59 5.0100002 0.66000003
-10.59 5.0100002 0.75999999
-10.59 5.0100002 0.86000001
-10.59 5.0100002 0.95999998
-10.59 5.0100002 1.0599999
-10.59 5.0100002 1.16
-10.59 5.0100002 1.26
-10.59 5.0100002 1.36
-10.59 5.0100002 1.46
-10.59 5.0100002 1.5599999
-10.59 5.0100002 1.66
-10.59 5.0100002 1.76
-10.59 5.0100002 1.86
-10.59 5.0100002 1.96
-10.59 5.0100002 2.0599999
-10.59 5.0100002 2.1600001
-10.59 5.0100002 2.26
-10.59 5.0100002 2.3599999
-10.59 5.0100002 2.46
-10.59 5.0100002 2.5599999
-10.59 5.0100002 2.6600001
-10.59 5.0100002 2.76
-10.49 4.9099998 -2.9400001
-10.49 4.9099998 -2.8399999
-10.49 4.9099998 -2.74
-10.49 4.9099998 -2.6400001
-10.49 4.9099998 -2.54
-10.49 4.9099998 -2.4400001
-10.49 4.9099998 -2.3399999
-10.49 4.9099998 -2.24
-10.49 4.9099998 -2.1400001
-10.49 4.9099998 -2.04
-10.49 4.9099998 -1.9400001
-10.49 4.9099998 -1.84
-10.49 4.9099998 -1.74
-10.49 4.9099998 -1.64
-10.49 4.9099998 -1.54
-10.49 4.9099998 -1.4400001
-10.49 4.9099998 -1.34
-10.49 4.9099998 -1.24
-10.49 4.9099998 -1.14
-10.49 4.9099998 -1.04
-10.49 4.9099998 -0.94
-10.49 4.9099998 -0.83999997
-10.49 4.9099998 -0.74000001
-10.49 4.9099998 -0.63999999
-10.49 4.9099998 -0.54000002
-10.49 4.9099998 -0.44
-10.49 4.9099998 -0.34
-10.49 4.9099998 -0.23999999
-10.49 4.9099998 -0.14
-10.49 4.9099998 -0.039999999
-10.49 4.9099998 0.059999999
-10.49 4.9099998 0.16
-10.49 4.9099998 0.25999999
-10.49 4.9099998 0.36000001
-10.49 4.9099998 0.46000001
-10.49 4.9099998 0.56
-10.49 4.9099998 0.66000003
-10.49 4.9099998 0.75999999
-10.49 4.9099998 0.86000001
-10.49 4.9099998 0.95999998
-10.49 5.0100002 -2.9400001
-10.49 5.0100002 -2.8399999
-10.49 5.0100002 -2.74
-10.49 5.0100002 -2.6400001
-10.49 5.0100002 -2.54
-10.49 5.0100002 -2.4400001
-10.49 5.0100002 -2.3399999
-10.49 5.0100002 -2.24
-10.49 5.0100002 -2.1400001
-10.49 5.0100002 -2.04
-10.49 5.0100002 -1.9400001
-10.49 5.0100002 -1.84
-10.49 5.0100002 -1.74
-10.49 5.0100002 -1.64
-10.49 5.0100002 -1.54
-10.49 5.0100002 -1.4400001
-10.49 5.0100002 -1.34
-10.49 5.0100002 -1.24
-10.49 5.0100002 -1.14
-10.49 5.0100002 -1.04
-10.49 5.0100002 -0.94
-10.49 5.0100002 -0.83999997
-10.49 5.0100002 -0.74000001
-10.49 5.0100002 -0.63999999
-10.49 5.0100002 -0.54000002
-10.49 5.0100002 -0.44
-10.49 5.0100002 -0.34
-10.49 5.0100002 -0.23999999
-10.49 5.0100002 -0.14
-10.49 5.0100002 -0.039999999
-10.49 5.0100002 0.059999999
-10.49 5.0100002 0.16
-10.49 5.0100002 0.25999999
-10.49 5.0100002 0.36000001
-10.49 5.0100002 0.46000001
-10.49 5.0100002 0.56
-10.49 5.0100002 0.66000003
-10.49 5.0100002 0.75999999
-10.49 5.0100002 0.86000001
-10.49 5.0100002 0.95999998
-10.49 5.0100002 1.0599999
-10.49 5.0100002 1.16
-10.49 5.0100002 1.26
-10.49 5.0100002 1.36
-10.49 5.0100002 1.46
-14.49 0.11 -2.9400001
-14.49 0.11 -2.8399999
-14.49 0.11 -2.74
-14.49 0.11 -2.6400001
-14.49 0.11 -2.54
-14.49 0.11 -2.4400001
-14.49 0.11 -2.3399999
-14.49 0.11 -2.24
-14.49 0.11 -2.1400001
-14.49 0.11 -2.04
-14.49 0.11 -1.9400001
-14.49 0.11 -1.84
-14.49 0.11 -1.74
-14.49 0.11 -1.64
-14.49 0.11 -1.54
-14.49 0.11 -1.4400001
-14.49 0.11 -1.34
-14.49 0.11 -1.24
-14.49 0.11 -1.14
-14.49 0.11 -1.04
-14.49 0.11 -0.94
-14.49 0.11 -0.83999997
-14.49 0.11 -0.74000001
-14.49 0.11 -0.63999999
-14.49 0.11 -0.54000002
-14.49 0.11 -0.44
-14.49 0.11 -0.34
-14.49 0.11 -0.23999999
-14.49 0.11 -0.14
-14.49 0.11 -0.039999999
-14.49 0.11 0.059999999
-14.49 0.20999999 -2.9400001
-14.49 0.20999999 -2.8399999
-14.49 0.20999999 -2.74
-14.49 0.20999999 -2.6400001
-14.49 0.20999999 -2.54
-14.49 0.20999999 -2.4400001
-14.49 0.20999999 -2.3399999
-14.49 0.20999999 -2.24
-14.49 0.20999999 -2.1400001
-14.49 0.20999999 -2.04
-14.49 0.20999999 -1.9400001
-14.49 0.20999999 -1.84
-14.49 0.20999999 -1.74
-14.49 0.20999999 -1.64
-14.49 0.20999999 -1.54
-14.49 0.20999999 -1.4400001
-14.49 0.20999999 -1.34
-14.49 0.20999999 -1.24
-14.49 0.20999999 -1.14
-14.49 0.20999999 -1.04
-14.49 0.20999999 -0.94
-14.49 0.20999999 -0.83999997
-14.49 0.20999999 -0.74000001
-14.49 0.20999999 -0.63999999
-14.49 0.20999999 -0.54000002
-14.49 0.20999999 -0.44
-14.49 0.20999999 -0.34
-14.49 0.20999999 -0.23999999
-14.49 0.20999999 -0.14
-14.49 0.20999999 -0.039999999
-14.49 0.20999999 0.059999999
-14.49 0.20999999 0.16
-14.49 0.20999999 0.25999999
-14.49 0.20999999 0.36000001
-14.49 0.20999999 0.46000001
-14.49 0.20999999 0.56
-14.49 0.20999999 0.66000003
-14.49 0.20999999 0.75999999
-14.49 0.20999999 0.86000001
-14.49 0.20999999 0.95999998
-14.49 0.20999999 1.0599999
-14.49 0.20999999 1.16
-14.49 0.20999999 1.26
-14.49 0.20999999 1.36
-14.49 0.20999999 1.46
-14.49 0.20999999 1.5599999
-14.49 0.20999999 1.66
-14.49 0.20999999 1.76
-14.49 0.20999999 1.86
-14.49 0.20999999 1.96
-14.49 0.20999999 2.0599999
-14.49 0.31 -2.9400001
-14.49 0.31 -2.8399999
-14.49 0.31 -2.74
-14.49 0.31 -2.6400001
-14.49 0.31 -2.54
-14.49 0.31 -2.4400001
-14.49 0.31 -2.3399999
-14.49 0.31 -2.24
-14.49 0.31 -2.1400001
-14.49 0.31 -2.04
-14.49 0.31 -1.9400001
-14.49 0.31 -1.84
-14.49 0.31 -1.74
-14.49 0.31 -1.64
-14.49 0.31 -1.54
-14.49 0.31 -1.4400001
-14.49 0.31 -1.34
-14.49 0.31 -1.24
-14.49 0.31 -1.14
-14.49 0.31 -1.04
-14.49 0.31 -0.94
-14.49 0.31 -0.83999997
-14.49 0.31 -0.74000001
-14.49 0.31 -0.63999999
-14.49 0.31 -0.54000002
-14.49 0.31 -0.44
-14.49 0.31 -0.34
-14.49 0.31 -0.23999999
-14.49 0.31 -0.14
-14.49 0.31 -0.039999999
-14.49 0.31 0.059999999
-14.49 0.31 0.16
-14.49 0.31 0.25999999
-14.49 0.31 0.36000001
-14.49 0.31 0.46000001
-14.49 0.31 0.56
-14.49 0.31 0.66000003
-14.49 0.31 0.75999999
-14.49 0.31 0.86000001
-14.49 0.31 0.95999998
-14.49 0.31 1.0599999
-14.49 0.31 1.16
-14.49 0.31 1.26
-14.49 0.31 1.36
-14.49 0.31 1.46
-14.49 0.41 -2.9400001
-14.49 0.41 -2.8399999
-14.49 0.41 -2.74
-14.49 0.41 -2.6400001
-14.49 0.41 -2.54
-14.49 0.41 -2.4400001
-14.49 0.41 -2.3399999
-14.49 0.41 -2.24
-14.49 0.41 -2.1400001
-14.49 0.41 -2.04
-14.49 0.41 -1.9400001
-14.49 0.41 -1.84
-14.49 0.41 -1.74
-14.49 0.41 -1.64
-14.49 0.41 -1.54
-14.49 0.41 -1.4400001
-14.49 0.41 -1.34
-14.49 0.41 -1.24
-14.49 0.41 -1.14
-14.49 0.41 -1.04
-14.49 0.41 -0.94
-14.49 0.41 -0.83999997
-14.49 0.41 -0.74000001
-14.49 0.41 -0.63999999
-14.49 0.41 -0.54000002
-14.49 0.41 -0.44
-14.49 0.41 -0.34
-14.49 0.41 -0.23999999
-14.49 0.41 -0.14
-14.49 0.41 -0.039999999
-14.49 0.41 0.059999999
-14.49 0.41 0.16
-14.49 0.50999999 -2.9400001
-14.49 0.50999999 -2.8399999
-14.49 0.50999999 -2.74
-14.49 0.50999999 -2.6400001
-14.49 0.50999999 -2.54
-14.49 0.50999999 -2.4400001
-14.49 0.50999999 -2.3399999
-14.49 0.50999999 -2.24
-14.49 0.50999999 -2.1400001
-14.49 0.50999999 -2.04
-14.49 0.50999999 -1.9400001
-14.49 0.50999999 -1.84
-14.49 0.50999999 -1.74
-14.49 0.50999999 -1.64
-14.49 0.50999999 -1.54
-14.49 0.50999999 -1.4400001
-14.49 0.50999999 -1.34
-14.49 0.50999999 -1.24
-14.49 0.50999999 -1.14
-14.49 0.50999999 -1.04
-14.49 0.50999999 -0.94
-14.49 0.50999999 -0.83999997
-14.49 0.50999999 -0.74000001
-14.49 0.50999999 -0.63999999
-14.49 0.50999999 -0.54000002
-14.49 0.50999999 -0.44
-14.49 0.50999999 -0.34
-14.49 0.50999999 -0.23999999
-14.49 0.50999999 -0.14
-14.49 0.50999999 -0.039999999
-14.49 0.50999999 0.059999999
-14.49 0.50999999 0.16
-14.49 0.50999999 0.25999999
-14.49 0.50999999 0.36000001
-14.49 0.50999999 0.46000001
-14.49 0.50999999 0.56
-14.49 0.50999999 0.66000003
-14.49 0.50999999 0.75999999
-14.49 0.50999999 0.86000001
-14.49 0.50999999 0.95999998
-14.49 0.50999999 1.0599999
-14.49 0.50999999 1.16
-14.49 0.50999999 1.26
-14.49 0.50999999 1.36
-14.49 0.50999999 1.46
-14.49 0.61000001 -2.9400001
-14.49 0.61000001 -2.8399999
-14.49 0.61000001 -2.74
-14.49 0.61000001 -2.6400001
-14.49 0.61000001 -2.54
-14.49 0.61000001 -2.4400001
-14.49 0.61000001 -2.3399999
-14.49 0.61000001 -2.24
-14.49 0.61000001 -2.1400001
-14.49 0.61000001 -2.04
-14.49 0.61000001 -1.9400001
-14.49 0.61000001 -1.84
-14.49 0.61000001 -1.74
-14.49 0.61000001 -1.64
-14.49 0.61000001 -1.54
-14.49 0.61000001 -1.4400001
-14.49 0.61000001 -1.34
-14.49 0.61000001 -1.24
-14.49 0.61000001 -1.14
-14.49 0.61000001 -1.04
-14.49 0.61000001 -0.94
-14.49 0.61000001 -0.83999997
-14.49 0.61000001 -0.74000001
-14.49 0.61000001 -0.63999999
-14.49 0.61000001 -0.54000002
-14.49 0.61000001 -0.44
-14.49 0.61000001 -0.34
-14.49 0.61000001 -0.23999999
-14.49 0.61000001 -0.14
-14.49 0.61000001 -0.039999999
-14.49 0.61000001 0.059999999
-14.49 0.61000001 0.16
-14.49 0.61000001 0.25999999
-14.49 0.61000001 0.36000001
-14.49 0.61000001 0.46000001
-14.49 0.61000001 0.56
-14.49 0.61000001 0.66000003
-14.49 0.61000001 0.75999999
-14.49 0.61000001 0.86000001
-14.49 0.61000001 0.95999998
-14.49 0.61000001 1.0599999
-14.49 0.61000001 1.16
-14.49 0.61000001 1.26
-14.39 0.0099999998 -2.9400001
-14.39 0.0099999998 -2.8399999
-14.39 0.0099999998 -2.74
-14.39 0.0099999998 -2.6400001
-14.39 0.0099999998 -2.54
-14.39 0.0099999998 -2.4400001
-14.39 0.0099999998 -2.3399999
-14.39 0.0099999998 -2.24
-14.39 0.0099999998 -2.1400001
-14.39 0.0099999998 -2.04
-14.39 0.0099999998 -1.9400001
-14.39 0.0099999998 -1.84
-14.39 0.0099999998 -1.74
-14.39 0.0099999998 -1.64
-14.39 0.0099999998 -1.54
-14.39 0.0099999998 -1.4400001
-14.39 0.0099999998 -1.34
-14.39 0.0099999998 -1.24
-14.39 0.0099999998 -1.14
-14.39 0.0099999998 -1.04
-14.39 0.0099999998 -0.94
-14.39 0.0099999998 -0.83999997
-14.39 0.0099999998 -0.74000001
-14.39 0.0099999998 -0.63999999
-14.39 0.0099999998 -0.54000002
-14.39 0.0099999998 -0.44
-14.39 0.0099999998 -0.34
-14.39 0.0099999998 -0.23999999
-14.39 0.0099999998 -0.14
-14.39 0.0099999998 -0.039999999
-14.39 0.0099999998 0.059999999
-14.39 0.0099999998 0.16
-14.39 0.0099999998 0.25999999
-14.39 0.0099999998 0.36000001
-14.39 0.0099999998 0.46000001
-14.39 0.0099999998 0.56
-14.39 0.0099999998 0.66000003
-14.39 0.0099999998 0.75999999
-14.39 0.0099999998 0.86000001
-14.39 0.0099999998 0.95999998
-14.39 0.0099999998 1.0599999
-14.39 0.0099999998 1.16
-14.39 0.0099999998 1.26
-14.39 0.0099999998 1.36
-14.39 0.0099999998 1.46
-14.39 0.0099999998 1.5599999
-14.39 0.0099999998 1.66
-14.39 0.0099999998 1.76
-14.39 0.0099999998 1.86
-14.39 0.0099999998 1.96
-14.39 0.0099999998 2.0599999
-14.39 0.0099999998 2.1600001
-14.39 0.0099999998 2.26
-14.39 0.0099999998 2.3599999
-14.39 0.0099999998 2.46
-14.39 0.0099999998 2.5599999
-14.39 0.0099999998 2.6600001
-14.39 0.70999998 -2.9400001
-14.39 0.70999998 -2.8399999
-14.39 0.70999998 -2.74
-14.39 0.70999998 -2.6400001
-14.39 0.70999998 -2.54
-14.39 0.70999998 -2.4400001
-14.39 0.70999998 -2.3399999
-14.39 0.70999998 -2.24
-14.39 0.70999998 -2.1400001
-14.39 0.70999998 -2.04
-14.39 0.70999998 -1.9400001
-14.39 0.70999998 -1.84
-14.39 0.70999998 -1.74
-14.39 0.70999998 -1.64
-14.39 0.70999998 -1.54
-14.39 0.70999998 -1.4400001
-14.39 0.70999998 -1.34
-14.39 0.70999998 -1.24
-14.39 0.70999998 -1.14
-14.39 0.70999998 -1.04
-14.39 0.70999998 -0.94
-14.39 0.70999998 -0.83999997
-14.39 0.70999998 -0.74000001
-14.39 0.70999998 -0.63999999
-14.39 0.70999998 -0.54000002
-14.39 0.70999998 -0.44
-14.39 0.70999998 -0.34
-14.39 0.70999998 -0.23999999
-14.39 0.70999998 -0.14
-14.39 0.70999998 -0.039999999
-14.39 0.70999998 0.059999999
-14.39 0.70999998 0.16
-14.39 0.70999998 0.25999999
-14.39 0.70999998 0.36000001
-14.39 0.70999998 0.46000001
-14.39 0.70999998 0.56
-14.39 0.70999998 0.66000003
-14.39 0.70999998 0.75999999
-14.39 0.70999998 0.86000001
-14.39 0.70999998 0.95999998
-14.39 0.70999998 1.0599999
-14.39 0.70999998 1.16
-14.39 0.70999998 1.26
-14.39 0.70999998 1.36
-14.39 0.70999998 1.46
-14.39 0.70999998 1.5599999
-14.39 0.70999998 1.66
-14.39 0.70999998 1.76
-14.39 0.70999998 1.86
-14.39 0.70999998 1.96
-14.39 0.70999998 2.0599999
-14.39 0.70999998 2.1600001
-14.39 0.70999998 2.26
-14.39 0.70999998 2.3599999
-14.29 -0.090000004 -2.9400001
-14.29 -0.090000004 -2.8399999
-14.29 -0.090000004 -2.74
-14.29 -0.090000004 -2.6400001
-14.29 -0.090000004 -2.54
-14.29 -0.090000004 -2.4400001
-14.29 -0.090000004 -2.3399999
-14.29 -0.090000004 -2.24
-14.29 -0.090000004 -2.1400001
-14.29 -0.090000004 -2.04
-14.29 -0.090000004 -1.9400001
-14.29 -0.090000004 -1.84
-14.29 -0.090000004 -1.74
-14.29 -0.090000004 -1.64
-14.29 -0.090000004 -1.54
-14.29 -0.090000004 -1.4400001
-14.29 -0.090000004 -1.34
-14.29 -0.090000004 -1.24
-14.29 -0.090000004 -1.14
-14.29 -0.090000004 -1.04
-14.29 -0.090000004 -0.94
-14.29 -0.090000004 -0.83999997
-14.29 -0.090000004 -0.74000001
-14.29 -0.090000004 -0.63999999
-14.29 -0.090000004 -0.54000002
-14.29 -0.090000004 -0.44
-14.29 -0.090000004 -0.34
-14.29 -0.090000004 -0.23999999
-14.29 -0.090000004 -0.14
-14.29 -0.090000004 -0.039999999
-14.29 -0.090000004 0.059999999
-14.29 -0.090000004 0.16
-14.29 -0.090000004 0.25999999
-14.29 -0.090000004 0.36000001
-14.29 -0.090000004 0.46000001
-14.29 -0.090000004 0.56
-14.29 -0.090000004 0.66000003
-14.29 0.70999998 -2.9400001
-14.29 0.70999998 -2.8399999
-14.29 0.70999998 -2.74
-14.29 0.70999998 -2.6400001
-14.29 0.70999998 -2.54
-14.29 0.70999998 -2.4400001
-14.29 0.70999998 -2.3399999
-14.29 0.70999998 -2.24
-14.29 0.70999998 -2.1400001
-14.29 0.70999998 -2.04
-14.29 0.70999998 -1.9400001
-14.29 0.70999998 -1.84
-14.29 0.70999998 -1.74
-14.29 0.70999998 -1.64
-14.29 0.70999998 -1.54
-14.29 0.70999998 -1.4400001
-14.29 0.70999998 -1.34
-14.29 0.70999998 -1.24
-14.29 0.70999998 -1.14
-14.29 0.70999998 -1.04
-14.29 0.70999998 -0.94
-14.29 0.70999998 -0.83999997
-14.29 0.70999998 -0.74000001
-14.29 0.70999998 -0.63999999
-14.29 0.70999998 -0.54000002
-14.29 0.70999998 -0.44
-14.29 0.70999998 -0.34
-14.29 0.70999998 -0.23999999
-14.29 0.70999998 -0.14
-14.29 0.70999998 -0.039999999
-14.29 0.70999998 0.059999999
-14.29 0.70999998 0.16
-14.29 0.70999998 0.25999999
-14.29 0.70999998 0.36000001
-14.29 0.70999998 0.46000001
-14.29 0.70999998 0.56
-14.29 0.70999998 0.66000003
-14.29 0.70999998 0.75999999
-14.29 0.70999998 0.86000001
-14.29 0.70999998 0.95999998
-14.29 0.70999998 1.0599999
-14.29 0.70999998 1.16
-14.29 0.81 -2.9400001
-14.29 0.81 -2.8399999
-14.29 0.81 -2.74
-14.29 0.81 -2.6400001
-14.29 0.81 -2.54
-14.29 0.81 -2.4400001
-14.29 0.81 -2.3399999
-14.29 0.81 -2.24
-14.29 0.81 -2.1400001
-14.29 0.81 -2.04
-14.29 0.81 -1.9400001
-14.29 0.81 -1.84
-14.29 0.81 -1.74
-14.29 0.81 -1.64
-14.29 0.81 -1.54
-14.29 0.81 -1.4400001
-14.29 0.81 -1.34
-14.29 0.81 -1.24
-14.29 0.81 -1.14
-14.29 0.81 -1.04
-14.29 0.81 -0.94
-14.29 0.81 -0.83999997
-14.29 0.81 -0.74000001
-14.29 0.81 -0.63999999
-14.29 0.81 -0.54000002
-14.29 0.81 -0.44
-14.29 0.81 -0.34
-14.29 0.81 -0.23999999
-14.29 0.81 -0.14
-14.29 0.81 -0.039999999
-14.29 0.81 0.059999999
-14.29 0.81 0.16
-14.29 0.81 0.25999999
-14.29 0.81 0.36000001
-14.29 0.81 0.46000001
-14.29 0.81 0.56
-14.29 0.81 0.66000003
-14.29 0.81 0.75999999
-14.29 0.81 0.86000001
-14.29 0.81 0.95999998
-14.29 0.81 1.0599999
-14.29 0.81 1.16
-14.29 0.81 1.26
-14.29 0.81 1.36
-14.29 0.81 1.46
-14.29 0.81 1.5599999
-14.29 0.81 1.66
-14.29 0.81 1.76
-14.19 -0.090000004 -2.9400001
-14.19 -0.090000004 -2.8399999
-14.19 -0.090000004 -2.74
-14.19 -0.090000004 -2.6400001
-14.19 -0.090000004 -2.54
-14.19 -0.090000004 -2.4400001
-14.19 -0.090000004 -2.3399999
-14.19 -0.090000004 -2.24
-14.19 -0.090000004 -2.1400001
-14.19 -0.090000004 -2.04
-14.19 -0.090000004 -1.9400001
-14.19 -0.090000004 -1.84
-14.19 -0.090000004 -1.74
-14.19 -0.090000004 -1.64
-14.19 -0.090000004 -1.54
-14.19 -0.090000004 -1.4400001
-14.19 -0.090000004 -1.34
-14.19 -0.090000004 -1.24
-14.19 -0.090000004 -1.14
-14.19 -0.090000004 -1.04
-14.19 -0.090000004 -0.94
-14.19 -0.090000004 -0.83999997
-14.19 -0.090000004 -0.74000001
-14.19 -0.090000004 -0.63999999
-14.19 -0.090000004 -0.54000002
-14.19 -0.090000004 -0.44
-14.19 -0.090000004 -0.34
-14.19 -0.090000004 -0.23999999
-14.19 -0.090000004 -0.14
-14.19 -0.090000004 -0.039999999
-14.19 -0.090000004 0.059999999
-14.19 -0.090000004 0.16
-14.19 -0.090000004 0.25999999
-14.19 -0.090000004 0.36000001
-14.19 -0.090000004 0.46000001
-14.19 -0.090000004 0.56
-14.19 -0.090000004 0.66000003
-14.19 -0.090000004 0.75999999
-14.19 -0.090000004 0.86000001
-14.19 -0.090000004 0.95999998
-14.19 -0.090000004 1.0599999
-14.19 0.81 -2.9400001
-14.19 0.81 -2.8399999
-14.19 0.81 -2.74
-14.19 0.81 -2.6400001
-14.19 0.81 -2.54
-14.19 0.81 -2.4400001
-14.19 0.81 -2.3399999
-14.19 0.81 -2.24
-14.19 0.81 -2.1400001
-14.19 0.81 -2.04
-14.19 0.81 -1.9400001
-14.19 0.81 -1.84
-14.19 0.81 -1.74
-14.19 0.81 -1.64
-14.19 0.81 -1.54
-14.19 0.81 -1.4400001
-14.19 0.81 -1.34
-14.19 0.81 -1.24
-14.19 0.81 -1.14
-14.19 0.81 -1.04
-14.19 0.81 -0.94
-14.19 0.81 -0.83999997
-14.19 0.81 -0.74000001
-14.19 0.81 -0.63999999
-14.19 0.81 -0.54000002
-14.19 0.81 -0.44
-14.19 0.81 -0.34
-14.19 0.81 -0.23999999
-14.19 0.81 -0.14
-14.19 0.81 -0.039999999
-14.19 0.81 0.059999999
-14.19 0.81 0.16
-14.19 0.81 0.25999999
-14.19 0.81 0.36000001
-14.19 0.81 0.46000001
-14.19 0.81 0.56
-14.19 0.81 0.66000003
-14.19 0.81 0.75999999
-14.19 0.81 0.86000001
-14.19 0.81 0.95999998
-14.19 0.81 1.0599999
-14.19 0.81 1.16
-14.19 0.81 1.26
-14.19 0.81 1.36
-14.19 0.81 1.46
-14.19 0.81 1.5599999
-14.19 0.81 1.66
-14.19 0.81 1.76
-14.19 0.81 1.86
-14.19 0.81 1.96
-14.19 0.81 2.0599999
-14.19 0.81 2.1600001
-14.19 0.81 2.26
-14.19 0.81 2.3599999
-14.19 0.81 2.46
-14.19 0.81 2.5599999
-14.19 0.81 2.6600001
-14.09 -0.090000004 -2.9400001
-14.09 -0.090000004 -2.8399999
-14.09 -0.090000004 -2.74
-14.09 -0.090000004 -2.6400001
-14.09 -0.090000004 -2.54
-14.09 -0.090000004 -2.4400001
-14.09 -0.090000004 -2.3399999
-14.09 -0.090000004 -2.24
-14.09 -0.090000004 -2.1400001
-14.09 -0.090000004 -2.04
-14.09 -0.090000004 -1.9400001
-14.09 -0.090000004 -1.84
-14.09 -0.090000004 -1.74
-14.09 -0.090000004 -1.64
-14.09 -0.090000004 -1.54
-14.09 -0.090000004 -1.4400001
-14.09 -0.090000004 -1.34
-14.09 -0.090000004 -1.24
-14.09 -0.090000004 -1.14
-14.09 -0.090000004 -1.04
-14.09 -0.090000004 -0.94
-14.09 -0.090000004 -0.83999997
-14.09 -0.090000004 -0.74000001
-14.09 -0.090000004 -0.63999999
-14.09 -0.090000004 -0.54000002
-14.09 -0.090000004 -0.44
-14.09 -0.090000004 -0.34
-14.09 -0.090000004 -0.23999999
-14.09 -0.090000004 -0.14
-14.09 -0.090000004 -0.039999999
-14.09 -0.090000004 0.059999999
-14.09 -0.090000004 0.16
-14.09 -0.090000004 0.25999999
-14.09 -0.090000004 0.36000001
-14.09 -0.090000004 0.46000001
-14.09 -0.090000004 0.56
-14.09 -0.090000004 0.66000003
-14.09 0.81 -2.9400001
-14.09 0.81 -2.8399999
-14.09 0.81 -2.74
-14.09 0.81 -2.6400001
-14.09 0.81 -2.54
-14.09 0.81 -2.4400001
-14.09 0.81 -2.3399999
-14.09 0.81 -2.24
-14.09 0.81 -2.1400001
-14.09 0.81 -2.04
-14.09 0.81 -1.9400001
-14.09 0.81 -1.84
-14.09 0.81 -1.74
-14.09 0.81 -1.64
-14.09 0.81 -1.54
-14.09 0.81 -1.4400001
-14.09 0.81 -1.34
-14.09 0.81 -1.24
-14.09 0.81 -1.14
-14.09 0.81 -1.04
-14.09 0.81 -0.94
-14.09 0.81 -0.83999997
-14.09 0.81 -0.74000001
-14.09 0.81 -0.63999999
-14.09 0.81 -0.54000002
-14.09 0.81 -0.44
-14.09 0.81 -0.34
-14.09 0.81 -0.23999999
-14.09 0.81 -0.14
-14.09 0.81 -0.039999999
-14.09 0.81 0.059999999
-14.09 0.81 0.16
-14.09 0.81 0.25999999
-14.09 0.81 0.36000001
-14.09 0.81 0.46000001
-14.09 0.81 0.56
-14.09 0.81 0.66000003
-14.09 0.81 0.75999999
-14.09 0.81 0.86000001
-14.09 0.81 0.95999998
-14.09 0.81 1.0599999
-14.09 0.81 1.16
-14.09 0.81 1.26
-14.09 0.81 1.36
-14.09 0.81 1.46
-13.99 -0.090000004 -2.9400001
-13.99 -0.090000004 -2.8399999
-13.99 -0.090000004 -2.74
-13.99 -0.090000004 -2.6400001
-13.99 -0.090000004 -2.54
-13.99 -0.090000004 -2.4400001
-13.99 -0.090000004 -2.3399999
-13.99 -0.090000004 -2.24
-13.99 -0.090000004 -2.1400001
-13.99 -0.090000004 -2.04
-13.99 -0.090000004 -1.9400001
-13.99 -0.090000004 -1.84
-13.99 -0.090000004 -1.74
-13.99 -0.090000004 -1.64
-13.99 -0.090000004 -1.54
-13.99 -0.090000004 -1.4400001
-13.99 -0.090000004 -1.34
-13.99 -0.090000004 -1.24
-13.99 -0.090000004 -1.14
-13.99 -0.090000004 -1.04
-13.99 -0.090000004 -0.94
-13.99 -0.090000004 -0.83999997
-13.99 -0.090000004 -0.74000001
-13.99 -0.090000004 -0.63999999
-13.99 -0.090000004 -0.54000002
-13.99 -0.090000004 -0.44
-13.99 -0.090000004 -0.34
-13.99 -0.090000004 -0.23999999
-13.99 -0.090000004 -0.14
-13.99 -0.090000004 -0.039999999
-13.99 -0.090000004 0.059999999
-13.99 -0.090000004 0.16
-13.99 -0.090000004 0.25999999
-13.99 -0.090000004 0.36000001
-13.99 -0.090000004 0.46000001
-13.99 -0.090000004 0.56
-13.99 -0.090000004 0.66000003
-13.99 -0.090000004 0.75999999
-13.99 -0.090000004 0.86000001
-13.99 -0.090000004 0.95999998
-13.99 -0.090000004 1.0599999
-13.99 -0.090000004 1.16
-13.99 -0.090000004 1.26
-13.99 0.81 -2.9400001
-13.99 0.81 -2.8399999
-13.99 0.81 -2.74
-13.99 0.81 -2.6400001
-13.99 0.81 -2.54
-13.99 0.81 -2.4400001
-13.99 0.81 -2.3399999
-13.99 0.81 -2.24
-13.99 0.81 -2.1400001
-13.99 0.81 -2.04
-13.99 0.81 -1.9400001
-13.99 0.81 -1.84
-13.99 0.81 -1.74
-13.99 0.81 -1.64
-13.99 0.81 -1.54
-13.99 0.81 -1.4400001
-13.99 0.81 -1.34
-13.99 0.81 -1.24
-13.99 0.81 -1.14
-13.99 0.81 -1.04
-13.99 0.81 -0.94
-13.99 0.81 -0.83999997
-13.99 0.81 -0.74000001
-13.99 0.81 -0.63999999
-13.99 0.81 -0.54000002
-13.99 0.81 -0.44
-13.99 0.81 -0.34
-13.99 0.81 -0.23999999
-13.99 0.81 -0.14
-13.99 0.81 -0.039999999
-13.99 0.81 0.059999999
-13.99 0.81 0.16
-13.99 0.81 0.25999999
-13.99 0.81 0.36000001
-13.99 0.81 0.46000001
-13.99 0.81 0.56
-13.99 0.81 0.66000003
-13.99 0.81 0.75999999
-13.99 0.81 0.86000001
-13.99 0.81 0.95999998
-13.99 0.81 1.0599999
-13.99 0.81 1.16
-13.99 0.81 1.26
-13.99 0.81 1.36
-13.99 0.81 1.46
-13.99 0.81 1.5599999
-13.99 0.81 1.66
-13.99 0.81 1.76
-13.99 0.81 1.86
-13.99 0.81 1.96
-13.99 0.81 2.0599999
-13.99 0.81 2.1600001
-13.99 0.81 2.26
-13.99 0.81 2.3599999
-13.89 -0.090000004 -2.9400001
-13.89 -0.090000004 -2.8399999
-13.89 -0.090000004 -2.74
-13.89 -0.090000004 -2.6400001
-13.89 -0.090000004 -2.54
-13.89 -0.090000004 -2.4400001
-13.89 -0.090000004 -2.3399999
-13.89 -0.090000004 -2.24
-13.89 -0.090000004 -2.1400001
-13.89 -0.090000004 -2.04
-13.89 -0.090000004 -1.9400001
-13.89 -0.090000004 -1.84
-13.89 -0.090000004 -1.74
-13.89 -0.090000004 -1.64
-13.89 -0.090000004 -1.54
-13.89 -0.090000004 -1.4400001
-13.89 -0.090000004 -1.34
-13.89 -0.090000004 -1.24
-13.89 -0.090000004 -1.14
-13.89 -0.090000004 -1.04
-13.89 -0.090000004 -0.94
-13.89 -0.090000004 -0.83999997
-13.89 -0.090000004 -0.74000001
-13.89 -0.090000004 -0.63999999
-13.89 -0.090000004 -0.54000002
-13.89 -0.090000004 -0.44
-13.89 -0.090000004 -0.34
-13.89 -0.090000004 -0.23999999
-13.89 -0.090000004 -0.14
-13.89 -0.090000004 -0.039999999
-13.89 -0.090000004 0.059999999
-13.89 -0.090000004 0.16
-13.89 -0.090000004 0.25999999
-13.89 -0.090000004 0.36000001
-13.89 -0.090000004 0.46000001
-13.89 -0.090000004 0.56
-13.89 -0.090000004 0.66000003
-13.89 -0.090000004 0.75999999
-13.89 -0.090000004 0.86000001
-13.89 -0.090000004 0.95999998
-13.89 -0.090000004 1.0599999
-13.89 -0.090000004 1.16
-13.89 -0.090000004 1.26
-13.89 0.81 -2.9400001
-13.89 0.81 -2.8399999
-13.89 0.81 -2.74
-13.89 0.81 -2.6400001
-13.89 0.81 -2.54
-13.89 0.81 -2.4400001
-13.89 0.81 -2.3399999
-13.89 0.81 -2.24
-13.89 0.81 -2.1400001
-13.89 0.81 -2.04
-13.89 0.81 -1.9400001
-13.89 0.81 -1.84
-13.89 0.81 -1.74
-13.89 0.81 -1.64
-13.89 0.81 -1.54
-13.89 0.81 -1.4400001
-13.89 0.81 -1.34
-13.89 0.81 -1.24
-13.89 0.81 -1.14
-13.89 0.81 -1.04
-13.89 0.81 -0.94
-13.89 0.81 -0.83999997
-13.89 0.81 -0.74000001
-13.89 0.81 -0.63999999
-13.89 0.81 -0.54000002
-13.89 0.81 -0.44
-13.89 0.81 -0.34
-13.89 0.81 -0.23999999
-13.89 0.81 -0.14
-13.89 0.81 -0.039999999
-13.89 0.81 0.059999999
-13.89 0.81 0.16
-13.89 0.81 0.25999999
-13.89 0.81 0.36000001
-13.79 -0.090000004 -2.9400001
-13.79 -0.090000004 -2.8399999
-13.79 -0.090000004 -2.74
-13.79 -0.090000004 -2.6400001
-13.79 -0.090000004 -2.54
-13.79 -0.090000004 -2.4400001
-13.79 -0.090000004 -2.3399999
-13.79 -0.090000004 -2.24
-13.79 -0.090000004 -2.1400001
-13.79 -0.090000004 -2.04
-13.79 -0.090000004 -1.9400001
-13.79 -0.090000004 -1.84
-13.79 -0.090000004 -1.74
-13.79 -0.090000004 -1.64
-13.79 -0.090000004 -1.54
-13.79 -0.090000004 -1.4400001
-13.79 -0.090000004 -1.34
-13.79 -0.090000004 -1.24
-13.79 -0.090000004 -1.14
-13.79 -0.090000004 -1.04
-13.79 -0.090000004 -0.94
-13.79 -0.090000004 -0.83999997
-13.79 -0.090000004 -0.74000001
-13.79 -0.090000004 -0.63999999
-13.79 -0.090000004 -0.54000002
-13.79 -0.090000004 -0.44
-13.79 -0.090000004 -0.34
-13.79 -0.090000004 -0.23999999
-13.79 -0.090000004 -0.14
